604527.130,5096986.790,421.080,1,3,95
604527.090,5096987.160,422.060,1,3,164
604527.140,5096987.230,422.190,1,2,153
604527.310,5096987.290,422.110,1,3,124
604527.870,5096986.420,419.180,2,3,115
604527.380,5096987.350,422.160,1,3,157
604527.960,5096986.440,419.090,2,3,97
604527.440,5096987.390,422.190,1,2,141
604528.020,5096986.510,419.180,2,2,142
604527.510,5096987.430,422.190,1,2,152
604528.080,5096986.560,419.230,2,2,105
604527.910,5096987.000,420.560,1,1,179
604527.970,5096987.050,420.610,1,1,174
604528.060,5096987.070,420.530,1,1,173
604528.150,5096987.080,420.430,1,1,182
604528.260,5096987.080,420.270,1,2,171
604528.390,5096987.050,420.030,1,1,169
604528.480,5096987.070,419.940,1,2,147
604529.250,5096987.320,419.520,1,2,115
604529.350,5096987.320,419.400,1,5,112
604529.420,5096987.390,419.490,1,1,172
604529.490,5096987.420,419.450,1,2,107
604524.200,5096985.360,421.270,1,3,157
604524.280,5096985.420,421.320,1,3,156
604524.460,5096984.930,419.850,2,3,86
604524.350,5096985.450,421.290,1,2,143
604524.520,5096984.990,419.910,2,2,125
604524.450,5096985.440,421.150,1,2,122
604524.620,5096985.000,419.780,2,2,151
604524.520,5096985.470,421.100,1,2,121
604524.600,5096985.490,421.040,1,2,98
604524.650,5096985.600,421.250,1,3,140
604524.860,5096985.080,419.680,2,3,101
604524.730,5096985.630,421.240,1,3,131
604524.940,5096985.110,419.650,2,3,106
604524.800,5096985.690,421.270,1,2,145
604524.990,5096985.210,419.820,2,2,112
604524.870,5096985.730,421.280,1,2,127
604525.070,5096985.240,419.800,2,2,121
604524.930,5096985.800,421.380,1,2,138
604525.130,5096985.300,419.850,2,2,129
604525.200,5096985.380,419.970,1,1,168
604525.290,5096985.380,419.830,1,1,176
604525.190,5096985.830,421.100,1,2,95
604525.400,5096985.370,419.660,2,2,160
604525.270,5096985.850,421.060,1,2,145
604525.430,5096985.470,419.880,2,2,148
604525.310,5096985.950,421.260,1,3,140
604525.490,5096985.560,420.030,2,3,103
604525.410,5096985.960,421.130,1,1,128
604525.450,5096986.050,421.300,1,1,170
604525.530,5096986.110,421.350,1,2,35
604525.700,5096985.740,420.180,2,2,174
604527.950,5096986.990,419.670,2,2,60
604527.730,5096987.460,421.180,1,1,172
604527.810,5096987.500,421.170,1,2,138
604527.900,5096987.520,421.080,1,3,162
604528.120,5096987.190,419.950,2,3,106
604527.990,5096987.540,421.000,1,1,166
604528.280,5096987.270,419.920,1,3,140
604528.340,5096987.330,419.990,1,1,171
604528.420,5096987.380,420.000,1,2,161
604524.170,5096984.930,419.430,1,3,99
604524.240,5096984.970,419.420,1,3,127
604524.230,5096985.740,421.390,1,4,34
604524.440,5096985.200,419.730,2,4,85
604524.320,5096985.750,421.280,1,2,163
604524.520,5096985.220,419.680,2,2,108
604524.410,5096985.730,421.120,1,2,164
604524.490,5096985.750,421.060,1,2,151
604524.740,5096985.370,419.770,1,2,161
604524.810,5096985.400,419.740,1,2,162
604524.700,5096985.930,421.200,1,2,160
604524.880,5096985.470,419.820,2,2,112
604524.840,5096986.000,421.180,1,1,155
604524.910,5096986.080,421.290,1,1,179
604524.980,5096986.120,421.310,1,4,143
604525.130,5096985.760,420.210,2,4,104
604525.060,5096986.140,421.210,1,1,177
604525.150,5096986.140,421.120,1,1,179
604525.230,5096986.160,421.090,1,2,152
604525.390,5096985.800,419.930,2,2,135
604525.430,5096985.930,420.220,1,3,159
604525.410,5096986.160,420.820,1,2,159
604525.670,5096985.830,419.630,1,1,187
604525.430,5096986.510,421.670,1,1,170
604525.540,5096986.490,421.460,1,1,181
604525.600,5096986.570,421.590,1,1,167
604525.680,5096986.580,421.510,1,4,134
604525.950,5096986.050,419.790,2,4,127
604525.870,5096986.400,420.780,1,1,171
604527.430,5096987.480,422.160,1,3,130
604527.830,5096986.870,420.080,2,3,131
604527.490,5096987.540,422.210,1,3,137
604527.680,5096987.240,421.230,2,3,117
604527.940,5096987.020,420.330,1,2,178
604527.990,5096987.080,420.410,1,1,184
604527.980,5096987.250,420.830,1,1,185
604528.080,5096987.410,421.100,1,3,135
604528.270,5096987.130,420.140,2,3,147
604528.370,5096987.140,420.010,1,2,163
604524.180,5096985.470,421.310,1,4,106
604524.280,5096985.470,421.200,1,2,124
604524.460,5096984.990,419.750,2,2,153
604524.350,5096985.500,421.160,1,3,83
604524.530,5096985.030,419.740,2,3,145
604524.420,5096985.540,421.160,1,2,134
604524.600,5096985.080,419.770,2,2,133
604524.500,5096985.570,421.130,1,2,155
604524.570,5096985.630,421.200,1,3,93
604524.770,5096985.110,419.620,2,3,134
604524.640,5096985.670,421.200,1,2,157
604524.840,5096985.180,419.700,2,2,81
604524.700,5096985.740,421.280,1,3,146
604524.900,5096985.240,419.760,2,3,87
604525.020,5096984.950,418.870,3,3,83
604524.770,5096985.800,421.350,1,2,159
604525.010,5096985.190,419.490,2,2,52
604524.870,5096985.800,421.190,1,1,160
604524.950,5096985.810,421.120,1,1,136
604525.120,5096985.630,420.460,1,1,167
604525.110,5096985.840,420.950,1,3,136
604525.270,5096985.460,419.810,2,3,135
604525.150,5096985.970,421.220,1,2,94
604525.310,5096985.590,420.070,2,2,161
604525.250,5096985.960,421.110,1,1,176
604525.300,5096986.040,421.220,1,1,158
604525.410,5096986.000,420.970,1,2,87
604525.670,5096985.460,419.270,2,2,179
604525.550,5096986.090,421.010,1,2,152
604525.680,5096985.820,420.140,2,2,153
604525.580,5096986.240,421.350,1,1,172
604525.650,5096986.280,421.340,1,1,161
604525.700,5096986.380,421.530,1,2,161
604525.940,5096985.890,419.950,2,2,100
604525.790,5096986.380,421.400,1,1,166
604525.860,5096986.420,421.420,1,4,135
604526.150,5096985.850,419.570,2,4,112
604525.920,5096986.500,421.510,1,3,58
604526.210,5096985.940,419.710,2,3,159
604525.970,5096986.570,421.630,1,1,161
604526.070,5096986.570,421.480,1,1,167
604526.220,5096986.440,420.950,1,2,170
604526.310,5096986.470,420.890,1,1,172
604526.240,5096986.790,421.790,1,3,116
604526.450,5096986.410,420.560,2,3,131
604526.310,5096986.820,421.790,1,3,126
604526.660,5096986.190,419.710,2,3,89
604526.440,5096986.760,421.450,1,4,42
604524.840,5096986.130,421.220,1,1,177
604524.900,5096986.210,421.340,1,3,119
604524.960,5096986.280,421.450,1,1,165
604525.080,5096986.210,421.100,1,2,96
604525.160,5096986.260,421.100,1,4,91
604525.300,5096985.920,420.080,2,4,151
604525.380,5096985.960,420.070,1,2,155
604525.280,5096986.370,421.250,1,3,130
604525.480,5096985.950,419.890,2,3,99
604525.280,5096986.580,421.760,1,3,86
604525.540,5096986.010,419.990,2,3,134
604525.350,5096986.610,421.710,1,3,138
604525.650,5096985.970,419.730,2,3,130
604525.440,5096986.620,421.660,1,2,143
604525.640,5096986.210,420.330,2,2,146
604525.500,5096986.680,421.710,1,1,162
604525.590,5096986.700,421.650,1,2,162
604525.910,5096986.050,419.550,2,2,68
604525.670,5096986.700,421.530,1,3,108
604525.960,5096986.130,419.700,2,3,112
604525.790,5096986.670,421.290,1,2,166
604525.860,5096986.710,421.290,1,1,173
604526.010,5096986.600,420.810,1,4,114
604526.020,5096986.770,421.220,1,2,122
604526.170,5096986.490,420.290,2,2,164
604526.240,5096986.530,420.300,1,2,101
604526.320,5096987.110,421.640,1,5,142
604526.750,5096986.330,419.100,2,5,81
604526.370,5096987.170,421.740,1,2,167
604526.440,5096987.210,421.720,1,2,159
604526.620,5096987.080,421.150,1,5,40
604526.840,5096987.210,421.170,1,1,162
604526.900,5096987.270,421.230,1,2,139
604526.980,5096987.310,421.230,1,4,119
604527.110,5096987.240,420.870,1,3,119
604527.140,5096987.380,421.190,1,3,104
604527.210,5096987.420,421.200,1,2,157
604527.270,5096987.480,421.260,1,2,152
604527.540,5096987.050,419.850,2,2,100
604527.320,5096987.560,421.390,1,2,162
604524.590,5096985.180,419.770,2,4,144
604524.490,5096985.650,421.080,1,3,154
604524.670,5096985.190,419.680,2,3,113
604524.560,5096985.690,421.080,1,3,92
604524.750,5096985.210,419.640,2,3,142
604524.900,5096985.330,419.720,1,3,141
604524.780,5096985.840,421.140,1,2,108
604524.950,5096985.430,419.900,2,2,148
604524.860,5096985.880,421.150,1,1,149
604525.040,5096985.640,420.320,1,1,168
604524.960,5096986.030,421.380,1,1,164
604525.040,5096986.090,421.420,1,1,166
604525.140,5096986.060,421.190,1,1,162
604525.210,5096986.110,421.240,1,1,165
604525.310,5096986.080,421.040,1,1,167
604525.520,5096985.820,420.100,1,2,166
604525.480,5096986.120,420.900,1,2,146
604525.610,5096985.840,420.020,2,2,121
604525.490,5096986.290,421.320,1,2,112
604525.780,5096985.680,419.380,2,2,152
604525.560,5096986.350,421.380,1,2,165
604525.860,5096985.720,419.360,2,2,83
604525.640,5096986.370,421.300,1,2,168
604525.840,5096985.950,419.970,2,2,102
604525.690,5096986.440,421.400,1,2,156
604525.940,5096985.950,419.820,2,2,108
604525.770,5096986.490,421.440,1,3,121
604525.900,5096986.230,420.570,2,3,146
604525.960,5096986.290,420.660,1,1,180
604525.900,5096986.600,421.530,1,1,149
604525.960,5096986.660,421.590,1,3,148
604526.090,5096986.410,420.770,2,3,156
604526.070,5096986.620,421.330,1,3,160
604526.210,5096986.550,420.960,1,3,161
604526.300,5096986.570,420.890,1,1,160
604526.230,5096986.870,421.750,1,2,6
604526.300,5096986.910,421.740,1,2,123
604526.370,5096986.940,421.730,1,2,162
604526.730,5096986.310,419.640,2,2,81
604526.440,5096987.010,421.800,1,2,160
604526.550,5096986.970,421.550,1,3,110
604526.600,5096987.060,421.700,1,4,119
604526.770,5096986.920,421.110,1,3,132
604526.770,5096987.100,421.560,1,1,185
604526.770,5096987.260,421.960,1,2,150
604526.970,5096987.090,421.270,1,1,165
604526.900,5096987.370,422.050,1,2,161
604527.080,5096987.070,421.060,2,2,114
604526.950,5096987.440,422.170,1,2,164
604527.250,5096987.140,421.010,1,3,146
604527.500,5096986.890,420.050,1,3,127
604527.380,5096987.240,421.080,1,1,166
604527.430,5096987.320,421.190,1,3,131
604527.630,5096987.000,420.150,2,3,130
604527.500,5096987.360,421.220,1,2,162
604527.740,5096986.990,419.990,2,2,89
604527.580,5096987.380,421.160,1,2,164
604527.810,5096987.030,419.980,2,2,109
604527.630,5096987.470,421.330,1,2,166
604525.860,5096986.870,421.400,1,4,124
604526.060,5096986.480,420.130,2,4,131
604525.920,5096986.910,421.410,1,2,156
604526.330,5096986.140,418.910,2,2,112
604526.370,5096986.250,419.140,1,1,180
604526.440,5096986.320,419.200,1,1,175
604526.190,5096986.950,421.140,1,2,155
604526.480,5096986.430,419.430,2,2,125
604526.270,5096986.990,421.150,1,3,125
604526.340,5096987.020,421.110,1,3,146
604526.580,5096986.600,419.700,2,3,136
604526.420,5096987.060,421.100,1,3,149
604526.660,5096986.640,419.710,2,3,110
604526.520,5096987.070,420.980,1,2,173
604526.720,5096986.710,419.800,2,2,123
604526.680,5096987.130,420.900,1,3,160
604526.750,5096987.160,420.870,1,3,134
604526.830,5096987.190,420.850,1,3,156
604526.880,5096987.270,420.990,1,2,179
604526.990,5096987.260,420.790,1,2,138
604527.190,5096987.590,421.370,1,3,122
604527.260,5096987.640,421.400,1,3,92
604527.370,5096987.630,421.220,1,3,135
604527.700,5096987.110,419.460,2,3,91
604527.440,5096987.660,421.190,1,3,43
604527.770,5096987.150,419.470,2,3,130
604527.490,5096987.740,421.330,1,3,3
604527.840,5096987.210,419.540,2,3,123
604528.120,5096987.560,420.020,1,4,66
604528.220,5096987.590,419.940,1,2,172
604528.280,5096987.640,419.980,1,2,173
604528.360,5096987.670,419.950,1,3,153
604528.430,5096987.730,420.000,1,3,164
604528.500,5096987.770,420.010,1,3,167
604528.570,5096987.820,420.040,1,2,131
604528.670,5096987.830,419.910,1,1,177
604528.710,5096987.930,420.110,1,3,84
604528.760,5096987.990,420.190,1,2,133
604528.840,5096988.030,420.200,1,2,89
604525.870,5096986.570,421.210,1,1,175
604525.930,5096986.640,421.310,1,1,169
604526.030,5096986.640,421.180,1,2,160
604526.150,5096986.590,420.850,1,3,162
604526.240,5096986.610,420.800,1,1,172
604526.150,5096986.940,421.730,1,2,68
604526.220,5096986.980,421.740,1,2,133
604526.420,5096986.620,420.550,2,2,139
604526.290,5096987.030,421.770,1,3,106
604526.490,5096986.680,420.610,2,3,156
604526.660,5096986.380,419.620,3,3,119
604526.380,5096987.050,421.690,1,1,170
604526.450,5096987.080,421.680,1,2,130
604526.610,5096986.970,421.180,1,2,175
604526.680,5096987.010,421.170,1,3,144
604526.780,5096987.030,421.100,1,2,159
604526.840,5096987.090,421.170,1,2,138
604526.910,5096987.130,421.160,1,2,161
604526.980,5096987.180,421.200,1,2,140
604526.880,5096987.490,422.110,1,3,34
604527.090,5096987.150,420.950,2,3,147
604527.200,5096987.160,420.860,1,4,147
604527.280,5096987.350,421.230,1,4,125
604527.530,5096986.950,419.870,2,4,139
604527.350,5096987.390,421.230,1,1,162
604527.460,5096987.360,421.010,1,2,151
604527.700,5096987.000,419.760,2,2,111
604527.510,5096987.460,421.200,1,3,167
604527.800,5096987.010,419.660,2,3,78
604527.580,5096987.490,421.180,1,2,163
604527.880,5096987.040,419.620,2,2,64
604527.620,5096987.590,421.350,1,3,153
604527.960,5096987.090,419.620,2,3,127
604527.760,5096987.520,420.990,1,2,140
604527.830,5096987.570,421.000,1,2,164
604527.910,5096987.620,421.020,1,4,151
604528.120,5096987.320,419.980,2,4,94
604528.180,5096987.370,420.010,1,2,157
604528.260,5096987.410,420.030,1,1,173
604528.340,5096987.440,419.970,1,2,165
604528.420,5096987.470,419.950,1,4,143
604528.670,5096987.580,419.860,1,2,124
604528.770,5096987.720,420.070,1,2,162
604524.090,5096985.770,421.380,1,2,121
604524.150,5096985.850,421.490,1,2,149
604524.340,5096985.340,419.950,2,2,118
604524.250,5096985.800,421.240,1,4,148
604524.410,5096985.390,419.980,2,4,90
604524.310,5096985.860,421.290,1,2,169
604524.390,5096985.910,421.320,1,2,146
604524.590,5096985.410,419.780,2,2,140
604524.580,5096985.650,420.400,1,2,164
604524.560,5096985.940,421.160,1,1,150
604524.620,5096985.990,421.190,1,2,152
604524.710,5096986.010,421.120,1,1,145
604528.530,5096987.890,419.980,1,2,135
604528.590,5096987.960,420.060,1,3,141
604528.670,5096987.980,420.000,1,3,89
604528.730,5096988.050,420.100,1,2,154
604528.780,5096988.140,420.250,1,2,125
604528.850,5096988.180,420.250,1,2,149
604528.940,5096988.210,420.190,1,2,155
604524.080,5096985.620,420.160,1,2,148
604524.200,5096985.540,419.780,2,3,162
604524.180,5096985.820,420.510,2,2,162
604524.120,5096986.210,421.570,1,1,147
604524.420,5096985.670,419.800,1,2,109
604524.500,5096985.710,419.780,1,2,169
604524.500,5096986.160,420.930,1,4,123
604524.680,5096985.710,419.560,2,4,95
604524.600,5096986.150,420.750,1,3,68
604524.750,5096985.770,419.620,2,3,141
604524.830,5096985.800,419.580,1,3,154
604524.650,5096986.450,421.440,1,2,160
604524.700,5096986.530,421.570,1,3,167
604524.900,5096986.080,420.180,2,3,123
604524.780,5096986.570,421.550,1,1,167
604524.850,5096986.610,421.570,1,2,154
604525.110,5096986.020,419.740,2,2,99
604525.180,5096986.070,419.760,1,3,152
604525.040,5096986.610,421.300,1,2,142
604525.330,5096985.980,419.330,2,2,130
604525.100,5096986.670,421.340,1,2,157
604525.340,5096986.140,419.700,2,2,76
604525.180,5096986.710,421.370,1,1,161
604525.250,5096986.750,421.350,1,3,164
604525.480,5096986.250,419.810,2,3,73
604527.420,5096987.560,421.270,1,2,161
604527.710,5096987.110,419.730,2,2,107
604527.500,5096987.600,421.260,1,3,154
604527.820,5096987.100,419.560,2,3,63
604527.540,5096987.670,421.360,1,3,148
604527.890,5096987.140,419.580,2,3,44
604527.620,5096987.690,421.340,1,2,81
604527.790,5096987.610,420.880,1,2,47
604528.110,5096987.440,420.020,1,2,167
604528.190,5096987.470,419.980,1,3,165
604528.270,5096987.520,419.990,1,3,166
604528.350,5096987.560,419.990,1,1,172
604528.440,5096987.580,419.900,1,3,165
604528.530,5096987.600,419.830,1,2,151
604528.570,5096987.670,419.940,1,2,160
604528.620,5096987.750,420.090,1,2,166
604528.690,5096987.810,420.140,1,3,134
604528.760,5096987.850,420.140,1,3,159
604528.860,5096987.870,420.030,1,2,63
604528.900,5096987.950,420.200,1,2,149
604528.960,5096988.010,420.260,1,4,13
604524.090,5096985.920,421.470,1,3,152
604524.280,5096985.390,419.870,2,3,67
604524.150,5096985.960,421.490,1,1,168
604524.240,5096986.000,421.460,1,1,163
604524.320,5096986.000,421.350,1,2,119
604524.490,5096985.570,420.040,2,2,155
604524.590,5096985.560,419.850,1,2,171
604524.490,5096986.030,421.180,1,3,163
604524.780,5096985.310,419.000,2,3,100
604524.570,5096986.060,421.160,1,2,154
604524.740,5096985.890,420.490,1,2,161
604524.770,5096986.020,420.760,1,1,171
604524.830,5096986.110,420.920,1,3,107
604524.830,5096986.290,421.360,1,2,157
604524.910,5096986.320,421.320,1,3,154
604524.990,5096986.370,421.350,1,4,35
604525.220,5096985.840,419.700,2,4,104
604525.080,5096986.370,421.220,1,3,147
604525.280,5096985.900,419.780,2,3,108
604525.150,5096986.420,421.250,1,3,115
604525.320,5096986.030,420.040,2,3,100
604525.210,5096986.470,421.280,1,4,33
604525.470,5096985.900,419.510,2,4,137
604525.240,5096986.610,421.590,1,1,177
604525.290,5096986.700,421.740,1,2,100
604525.680,5096985.880,419.170,2,2,169
604525.370,5096986.730,421.720,1,2,160
604525.680,5096986.070,419.660,2,2,84
604525.430,5096986.780,421.770,1,2,160
604525.520,5096986.770,421.640,1,5,129
604525.690,5096986.440,420.550,2,5,90
604525.840,5096986.130,419.560,3,5,98
604525.600,5096986.810,421.600,1,3,120
604525.810,5096986.390,420.250,2,3,126
604525.730,5096986.750,421.270,1,2,152
604525.800,5096986.800,421.300,1,2,168
604525.070,5096986.100,419.700,2,3,132
604524.900,5096986.700,421.430,1,3,96
604525.140,5096986.160,419.750,2,3,103
604525.230,5096986.180,419.680,1,2,161
604525.290,5096986.250,419.780,1,1,170
604525.120,5096986.800,421.370,1,2,105
604525.350,5096986.310,419.850,2,2,143
604525.200,5096986.830,421.340,1,1,153
604525.290,5096986.860,421.300,1,5,133
604525.560,5096986.290,419.490,2,5,62
604525.710,5096986.550,419.940,1,3,97
604525.760,5096986.650,420.130,1,2,164
604525.840,5096986.710,420.150,1,1,175
604525.910,5096986.750,420.170,1,2,165
604526.010,5096987.100,420.900,1,2,160
604526.250,5096986.640,419.410,2,2,89
604526.080,5096987.170,420.970,1,4,160
604526.340,5096986.680,419.380,2,4,82
604526.100,5096987.280,421.210,1,2,161
604526.160,5096987.350,421.320,1,2,163
604526.240,5096987.380,421.270,1,2,162
604526.300,5096987.430,421.310,1,2,171
604526.420,5096987.410,421.110,1,2,181
604526.520,5096987.400,420.930,1,1,167
604526.570,5096987.480,421.060,1,1,172
604526.650,5096987.520,421.050,1,2,162
604526.740,5096987.520,420.920,1,3,145
604526.830,5096987.540,420.850,1,3,113
604527.130,5096988.030,421.670,1,2,125
604527.200,5096988.080,421.710,1,2,116
604527.260,5096988.130,421.760,1,2,144
604528.150,5096988.020,420.230,1,3,121
604528.230,5096988.070,420.240,1,1,180
604528.290,5096988.120,420.280,1,3,151
604528.440,5096988.050,419.900,1,2,183
604528.530,5096988.090,419.900,1,2,145
604528.630,5096988.100,419.780,1,3,72
604528.890,5096988.110,420.290,1,2,154
604528.990,5096988.120,420.190,1,2,35
604524.110,5096986.060,421.500,1,1,158
604524.180,5096986.090,421.480,1,1,153
604524.370,5096985.830,420.570,1,3,142
604524.490,5096985.540,419.680,2,3,132
604524.520,5096985.680,419.970,1,2,175
604524.470,5096986.030,420.920,1,2,161
604524.540,5096986.090,420.990,1,1,166
604524.800,5096985.920,420.190,1,2,166
604524.860,5096985.960,420.210,1,3,107
604524.770,5096986.400,421.440,1,4,105
604525.020,5096985.810,419.630,2,4,72
604524.850,5096986.440,421.430,1,2,137
604525.170,5096985.920,419.690,1,3,23
604525.240,5096985.970,419.720,1,1,161
604525.080,5096986.520,421.310,1,3,143
604525.280,5096986.080,419.940,2,3,123
604525.150,5096986.570,421.330,1,2,165
604525.350,5096986.130,419.980,2,2,71
604525.230,5096986.620,421.350,1,2,160
604525.490,5096986.050,419.560,2,2,70
604525.310,5096986.620,421.270,1,2,124
604525.560,5096986.090,419.560,2,2,156
604525.330,5096986.780,421.610,1,2,132
604525.380,5096986.860,421.720,1,3,162
604525.560,5096986.480,420.560,2,3,85
604525.650,5096986.500,420.480,1,3,134
604525.770,5096986.460,420.220,1,3,47
604525.660,5096986.860,421.380,1,4,139
604525.830,5096986.520,420.290,2,4,116
604525.740,5096986.900,421.360,1,2,143
604525.920,5096986.550,420.240,2,2,114
604525.800,5096986.940,421.370,1,5,56
604525.990,5096986.580,420.210,2,5,28
604526.350,5096986.290,418.970,1,1,187
604526.150,5096987.030,421.110,1,1,169
604526.220,5096987.060,421.100,1,1,165
604526.260,5096987.150,421.250,1,1,183
604526.380,5096987.140,421.070,1,1,170
604526.440,5096987.190,421.110,1,2,166
604526.670,5096986.770,419.730,2,2,113
604526.540,5096987.200,420.980,1,3,119
604526.900,5096986.570,418.920,2,3,123
604526.630,5096987.200,420.860,1,3,64
604526.700,5096987.250,420.880,1,2,158
604526.780,5096987.290,420.880,1,3,175
604526.850,5096987.320,420.840,1,5,160
604526.950,5096987.330,420.750,1,3,151
604528.110,5096987.600,419.850,1,2,123
604528.150,5096987.690,419.990,1,3,115
604528.240,5096987.710,419.920,1,1,173
604528.330,5096987.720,419.830,1,3,171
604528.380,5096987.800,419.960,1,2,166
604528.460,5096987.850,419.960,1,1,169
604528.420,5096988.100,419.770,1,2,170
604528.490,5096988.150,419.790,1,3,141
604528.580,5096988.180,419.740,1,3,41
604528.640,5096988.240,419.810,1,3,99
604524.250,5096985.750,419.360,2,3,133
604524.120,5096986.290,420.910,1,2,163
604524.150,5096986.430,421.220,1,3,167
604524.230,5096986.480,421.230,1,2,158
604524.450,5096985.950,419.590,2,2,105
604524.300,5096986.540,421.280,1,2,161
604524.470,5096986.100,419.930,2,2,55
604524.420,5096986.460,420.910,1,2,140
604524.590,5096986.070,419.680,2,2,144
604524.450,5096986.590,421.190,1,2,165
604524.660,5096986.090,419.670,2,2,86
604524.630,5096986.810,421.490,1,1,167
604524.970,5096986.250,419.620,1,2,163
604525.040,5096986.300,419.650,1,1,174
604525.110,5096986.340,419.670,1,3,149
604525.170,5096986.440,419.830,1,2,164
604525.230,5096986.510,419.910,1,2,171
604525.540,5096986.320,419.880,2,4,100
604525.550,5096986.900,421.340,1,4,107
604525.810,5096986.560,420.130,1,1,176
604525.870,5096986.620,420.170,1,1,165
604525.980,5096986.620,420.040,1,1,167
604526.030,5096986.700,420.160,1,3,86
604526.220,5096986.340,418.990,2,3,157
604526.250,5096986.480,419.290,1,1,179
604526.070,5096986.970,420.780,1,4,152
604526.310,5096986.520,419.320,2,4,114
604526.110,5096987.090,421.010,1,1,169
604526.180,5096987.150,421.080,1,2,170
604526.450,5096986.650,419.430,2,2,51
604526.210,5096987.250,421.290,1,1,179
604526.310,5096987.250,421.140,1,4,175
604526.370,5096987.310,421.210,1,1,179
604526.450,5096987.340,421.190,1,1,165
604526.570,5096987.320,420.950,1,3,152
604526.920,5096986.700,418.930,2,3,79
604526.640,5096987.360,420.960,1,2,164
604526.700,5096987.420,421.010,1,1,172
604526.780,5096987.440,420.970,1,4,138
604526.860,5096987.470,420.940,1,4,160
604528.240,5096987.880,420.060,1,2,178
604528.350,5096987.860,419.860,1,3,170
604528.360,5096988.010,420.210,1,3,168
604528.430,5096988.040,420.190,1,3,150
604528.530,5096988.060,420.090,1,3,145
604528.750,5096988.200,420.150,1,2,124
604528.800,5096988.260,420.240,1,2,105
604528.880,5096988.300,420.220,1,2,111
604524.140,5096985.660,419.870,1,2,165
604524.200,5096985.970,420.560,1,2,148
604524.330,5096985.630,419.540,2,2,108
604524.240,5096986.110,420.860,1,2,145
604524.300,5096986.180,420.950,1,3,148
604524.470,5096985.770,419.710,2,3,104
604524.390,5096986.190,420.870,1,1,176
604524.470,5096986.200,420.780,1,3,107
604524.600,5096985.880,419.790,2,3,113
604524.530,5096986.280,420.880,1,3,130
604524.710,5096985.840,419.550,2,3,120
604524.620,5096986.310,420.840,1,2,115
604524.710,5096986.290,420.670,1,2,182
604524.660,5096986.630,421.600,1,3,154
604524.730,5096986.650,421.550,1,3,151
604524.810,5096986.690,421.540,1,3,105
604524.580,5096986.240,419.830,2,2,180
604524.530,5096986.610,420.830,1,2,165
604524.600,5096986.650,420.840,1,2,155
604524.770,5096986.230,419.570,2,2,82
604524.590,5096986.880,421.430,1,2,162
604524.680,5096986.870,421.280,1,2,162
604524.910,5096986.350,419.680,2,2,64
604525.000,5096986.350,419.550,1,1,163
604525.000,5096986.580,420.120,1,3,127
604525.050,5096986.660,420.250,1,3,159
604525.150,5096986.660,420.110,1,2,150
604525.210,5096986.720,420.170,1,1,174
604525.300,5096986.730,420.090,1,1,171
604525.520,5096986.890,420.170,1,3,148
604525.590,5096986.910,420.130,1,2,166
604525.670,5096986.950,420.100,1,3,147
604525.680,5096987.130,420.530,1,2,174
604525.710,5096987.250,420.810,1,1,174
604525.920,5096987.040,419.970,1,2,164
604525.870,5096987.310,420.740,1,2,140
604525.920,5096987.400,420.880,1,4,131
604526.210,5096986.870,419.150,2,4,99
604525.970,5096987.490,421.040,1,2,3
604526.270,5096986.940,419.230,2,2,167
604526.020,5096987.570,421.170,1,2,127
604526.350,5096986.980,419.210,2,2,150
604526.070,5096987.820,421.750,1,1,171
604526.140,5096987.850,421.710,1,1,161
604526.280,5096987.810,421.410,1,2,152
604526.730,5096987.190,419.230,1,2,98
604526.630,5096988.020,421.460,1,2,120
604526.680,5096988.100,421.560,1,3,134
604526.740,5096988.160,421.630,1,2,157
604526.820,5096988.180,421.580,1,2,167
604526.900,5096988.230,421.620,1,3,116
604526.970,5096988.290,421.650,1,3,7
604527.030,5096988.340,421.710,1,2,168
604528.370,5096988.330,419.800,1,3,120
604524.160,5096986.020,420.470,1,1,172
604524.180,5096986.210,420.920,1,1,168
604524.260,5096986.250,420.910,1,3,141
604524.310,5096986.330,421.050,1,3,151
604524.360,5096986.430,421.210,1,1,177
604524.470,5096986.390,420.950,1,3,158
604524.640,5096985.980,419.720,2,3,100
604524.550,5096986.420,420.920,1,4,125
604524.770,5096985.890,419.310,2,4,59
604524.590,5096986.550,421.210,1,1,182
604524.600,5096986.710,421.560,1,1,160
604524.660,5096986.780,421.650,1,1,157
604524.850,5096986.580,420.910,1,2,168
604525.100,5096986.210,419.640,1,3,152
604525.170,5096986.270,419.680,1,1,166
604525.220,5096986.350,419.830,1,2,166
604525.280,5096986.430,419.940,1,1,170
604525.390,5096986.420,419.750,1,3,122
604525.740,5096986.480,419.440,1,1,168
604525.720,5096986.720,420.050,1,1,175
604525.800,5096986.750,420.020,1,3,156
604525.810,5096987.090,420.850,1,3,27
604525.880,5096987.150,420.910,1,3,127
604525.960,5096987.180,420.880,1,3,147
604526.300,5096986.740,419.290,2,4,83
604526.100,5096987.280,420.930,1,4,148
604526.380,5096986.780,419.280,2,4,116
604526.120,5096987.410,421.220,1,2,152
604526.110,5096987.600,421.740,1,1,169
604526.300,5096987.450,421.070,1,2,175
604526.270,5096987.660,421.630,1,1,170
604526.480,5096987.470,420.860,1,1,187
604526.530,5096987.550,421.010,1,1,178
604526.650,5096987.510,420.740,1,2,56
604526.940,5096988.020,421.620,1,3,65
604527.000,5096988.070,421.660,1,3,17
604527.070,5096988.120,421.690,1,1,169
604527.130,5096988.180,421.740,1,2,107
604527.200,5096988.220,421.770,1,1,167
604527.280,5096988.260,421.750,1,4,165
604528.170,5096988.150,420.250,1,3,167
604526.800,5096988.260,421.520,1,2,157
604526.870,5096988.310,421.560,1,2,168
604526.930,5096988.380,421.630,1,2,172
604527.020,5096988.390,421.540,1,2,124
604527.060,5096988.470,421.670,1,2,96
604528.280,5096988.370,419.740,1,2,156
604528.360,5096988.400,419.700,1,2,105
604528.460,5096988.410,419.590,1,2,172
604524.090,5096985.890,419.040,2,3,107
604524.080,5096986.620,420.900,1,2,157
604524.130,5096986.710,421.060,1,2,148
604524.180,5096986.820,421.280,1,2,157
604524.300,5096986.760,420.940,1,2,150
604524.370,5096986.800,420.950,1,3,97
604524.400,5096986.920,421.200,1,2,173
604524.480,5096986.970,421.210,1,1,178
604524.550,5096987.030,421.290,1,1,168
604524.680,5096986.930,420.830,1,2,174
604524.750,5096986.990,420.890,1,1,160
604524.810,5096987.030,420.910,1,1,177
604524.870,5096987.110,421.020,1,2,174
604524.950,5096987.170,421.050,1,1,151
604525.120,5096986.980,420.350,1,1,165
604525.230,5096986.970,420.180,1,4,113
604525.390,5096986.630,419.090,2,4,130
604525.230,5096987.130,420.590,1,1,169
604525.520,5096986.290,418.950,1,3,36
604525.600,5096986.540,419.470,1,2,182
604525.570,5096986.800,420.170,1,2,158
604525.780,5096986.580,419.330,1,1,151
604525.850,5096986.630,419.350,1,2,145
604525.920,5096986.670,419.360,1,3,95
604525.760,5096987.170,420.830,1,3,154
604525.850,5096987.190,420.760,1,3,131
604525.950,5096987.000,420.130,2,3,149
604525.900,5096987.270,420.870,1,3,92
604526.150,5096986.820,419.410,2,3,157
604525.970,5096987.310,420.890,1,1,173
604526.040,5096987.350,420.900,1,3,158
604526.310,5096986.870,419.290,2,3,62
604526.070,5096987.500,421.230,1,1,178
604526.060,5096987.680,421.690,1,1,163
604526.140,5096987.710,421.670,1,1,177
604526.180,5096987.800,421.820,1,1,162
604526.260,5096987.810,421.740,1,4,152
604526.780,5096987.100,419.250,1,3,141
604526.600,5096987.590,420.710,1,2,159
604526.850,5096987.150,419.270,2,2,130
604526.690,5096987.610,420.630,1,2,167
604526.950,5096988.150,421.650,1,3,101
604527.010,5096988.200,421.680,1,2,127
604527.090,5096988.250,421.700,1,3,156
604527.160,5096988.280,421.650,1,2,118
604527.250,5096988.310,421.620,1,3,133
604528.430,5096988.250,419.820,1,1,150
604528.540,5096988.240,419.630,1,2,66
604524.080,5096985.650,419.070,2,3,84
604524.120,5096985.780,419.320,2,3,131
604524.210,5096985.770,419.170,2,2,73
604524.310,5096985.760,419.010,2,3,112
604524.120,5096986.490,421.120,1,3,139
604524.330,5096985.970,419.520,2,3,129
604524.180,5096986.560,421.220,1,3,143
604524.240,5096986.630,421.290,1,1,168
604524.310,5096986.670,421.280,1,2,169
604524.550,5096986.090,419.530,2,2,78
604524.450,5096986.570,420.840,1,2,99
604524.720,5096986.690,419.890,2,3,74
604524.610,5096987.160,421.220,1,2,171
604524.790,5096986.720,419.880,2,2,95
604524.690,5096987.160,421.090,1,1,183
604524.780,5096987.200,421.080,1,1,163
604524.850,5096987.230,421.060,1,1,163
604524.940,5096987.250,420.980,1,1,181
604524.990,5096987.320,421.080,1,1,172
604525.140,5096987.200,420.610,1,2,176
604525.220,5096987.230,420.560,1,3,80
604525.300,5096987.260,420.510,1,1,178
604525.360,5096987.350,420.660,1,3,166
604525.430,5096987.370,420.620,1,3,136
604525.660,5096986.920,419.150,2,3,91
604525.460,5096987.500,420.900,1,2,137
604525.520,5096987.580,421.000,1,2,165
604525.780,5096987.080,419.370,2,2,82
604525.610,5096987.590,420.910,1,2,163
604525.690,5096987.620,420.880,1,3,119
604525.920,5096987.180,419.440,2,3,138
604525.740,5096987.690,420.980,1,3,122
604526.010,5096987.200,419.350,2,3,111
604525.830,5096987.720,420.920,1,2,138
604526.120,5096987.190,419.170,2,2,140
604525.890,5096987.790,421.020,1,2,134
604526.200,5096987.240,419.210,2,2,128
604525.940,5096987.860,421.130,1,3,153
604526.270,5096987.280,419.200,2,3,98
604526.010,5096987.920,421.180,1,2,174
604526.320,5096987.370,419.340,2,2,82
604526.030,5096988.030,421.430,1,1,171
604526.100,5096988.090,421.460,1,1,169
604526.200,5096988.090,421.330,1,1,179
604526.290,5096988.100,421.230,1,1,177
604526.330,5096988.200,421.420,1,2,152
604526.430,5096988.190,421.250,1,3,161
604526.510,5096988.220,421.220,1,1,186
604526.550,5096988.320,421.410,1,2,153
604526.610,5096988.380,421.470,1,1,177
604526.680,5096988.430,421.520,1,3,147
604524.090,5096986.570,421.060,1,2,137
604524.150,5096986.630,421.130,1,2,168
604524.210,5096986.700,421.230,1,2,163
604524.270,5096986.780,421.330,1,1,170
604524.370,5096986.760,421.140,1,1,177
604524.400,5096986.890,421.430,1,1,162
604524.470,5096986.930,421.420,1,3,160
604524.610,5096986.830,420.970,1,2,166
604524.680,5096986.890,421.030,1,2,164
604524.730,5096986.970,421.150,1,3,159
604524.990,5096986.610,419.910,1,4,104
604525.010,5096986.750,420.230,1,2,168
604525.010,5096986.980,420.790,1,1,175
604525.170,5096986.840,420.240,1,3,76
604525.310,5096986.730,419.760,1,2,178
604525.320,5096986.910,420.210,1,2,130
604525.380,5096986.970,420.260,1,1,158
604525.450,5096987.030,420.320,1,2,169
604525.550,5096987.030,420.190,1,3,170
604525.580,5096987.160,420.470,1,2,179
604525.710,5096987.090,420.100,1,3,139
604525.650,5096987.380,420.930,1,3,105
604525.910,5096986.880,419.300,2,3,164
604525.710,5096987.440,420.990,1,1,169
604525.800,5096987.470,420.920,1,2,112
604525.970,5096987.150,419.900,2,2,157
604525.890,5096987.480,420.850,1,2,80
604526.140,5096987.010,419.290,2,2,178
604525.930,5096987.590,421.040,1,2,85
604526.210,5096987.080,419.380,2,2,170
604525.900,5096987.800,421.620,1,2,135
604526.300,5096987.090,419.260,2,2,137
604526.010,5096987.770,421.400,1,3,153
604526.380,5096987.120,419.250,2,3,100
604526.050,5096987.880,421.620,1,1,161
604526.110,5096987.940,421.670,1,1,166
604526.180,5096987.990,421.700,1,2,165
604526.380,5096987.810,420.990,1,3,177
604526.470,5096987.820,420.870,1,3,165
604526.440,5096988.040,421.460,1,2,170
604526.520,5096988.080,421.460,1,3,50
604526.590,5096988.130,421.480,1,2,63
604526.640,5096988.190,421.550,1,2,160
604526.710,5096988.230,421.560,1,1,167
604526.290,5096988.200,421.190,1,1,176
604526.350,5096988.250,421.240,1,3,162
604526.420,5096988.310,421.290,1,3,158
604526.520,5096988.300,421.110,1,1,181
604526.600,5096988.340,421.110,1,1,174
604526.670,5096988.370,421.070,1,3,166
604528.050,5096988.490,419.460,1,3,149
604524.080,5096986.900,420.730,1,3,161
604524.220,5096986.560,419.700,2,3,101
604524.140,5096986.950,420.780,1,3,111
604524.270,5096986.650,419.830,2,3,141
604524.130,5096987.220,421.470,1,2,136
604524.200,5096987.230,421.400,1,1,173
604524.320,5096987.170,421.070,1,2,170
604524.390,5096987.230,421.130,1,1,178
604524.430,5096987.350,421.380,1,1,155
604524.500,5096987.400,421.400,1,1,174
604524.580,5096987.410,421.310,1,1,179
604524.670,5096987.420,421.220,1,1,169
604524.840,5096987.280,420.620,1,1,174
604524.910,5096987.320,420.610,1,1,175
604524.990,5096987.330,420.550,1,3,148
604525.190,5096987.100,419.700,1,3,153
604525.080,5096987.520,420.900,1,1,175
604525.350,5096987.080,420.290,1,3,173
604525.370,5096987.260,420.710,1,2,159
604525.440,5096987.290,420.690,1,3,29
604525.760,5096986.880,419.210,2,3,132
604525.540,5096987.460,420.970,1,3,130
604525.830,5096986.910,419.180,2,3,131
604525.620,5096987.500,420.950,1,3,141
604525.870,5096987.020,419.390,2,3,140
604525.700,5096987.530,420.920,1,1,168
604525.770,5096987.590,420.970,1,2,119
604526.010,5096987.140,419.500,2,2,157
604525.840,5096987.640,421.010,1,2,160
604526.120,5096987.120,419.290,2,2,122
604526.190,5096987.160,419.290,1,1,174
604525.880,5096987.900,421.600,1,2,169
604526.280,5096987.180,419.220,2,2,93
604525.990,5096987.880,421.410,1,2,174
604526.020,5096987.990,421.630,1,1,177
604526.110,5096988.010,421.550,1,1,174
604526.210,5096988.000,421.380,1,1,174
604526.280,5096988.050,421.420,1,1,175
604526.350,5096988.100,421.450,1,1,172
604526.420,5096988.140,421.460,1,1,165
604526.500,5096988.180,421.420,1,3,147
604526.560,5096988.220,421.450,1,2,165
604526.630,5096988.260,421.450,1,3,153
604526.700,5096988.320,421.490,1,1,165
604526.770,5096988.370,421.520,1,3,146
604526.840,5096988.430,421.600,1,2,155
604526.900,5096988.490,421.650,1,2,139
604526.960,5096988.540,421.710,1,2,148
604528.160,5096988.300,419.420,1,2,51
604528.220,5096988.380,419.540,1,2,58
604528.270,5096988.450,419.650,1,2,155
604528.370,5096988.470,419.550,1,2,173
604524.140,5096986.750,420.840,1,2,144
604524.210,5096986.810,420.890,1,1,173
604524.280,5096986.850,420.890,1,2,161
604524.360,5096986.880,420.880,1,3,134
604524.370,5096987.080,421.350,1,1,170
604524.440,5096987.120,421.360,1,2,167
604524.520,5096987.140,421.290,1,3,162
604525.170,5096987.710,420.960,1,1,171
604525.250,5096987.730,420.890,1,2,177
604525.510,5096987.230,419.280,2,2,87
604525.300,5096987.830,421.080,1,3,139
604525.590,5096987.270,419.260,2,3,97
604525.370,5096987.880,421.120,1,3,154
604525.670,5096987.310,419.270,2,3,75
604525.450,5096987.910,421.060,1,3,144
604525.740,5096987.360,419.280,2,3,115
604525.500,5096987.990,421.200,1,1,169
604525.590,5096988.000,421.100,1,3,158
604525.900,5096987.430,419.230,2,3,93
604525.660,5096988.040,421.090,1,3,139
604525.970,5096987.480,419.240,2,3,142
604525.760,5096988.060,421.000,1,2,172
604526.050,5096987.530,419.270,2,2,60
604525.780,5096988.170,421.250,1,2,166
604525.870,5096988.200,421.200,1,1,162
604525.980,5096988.160,420.940,1,3,142
604526.320,5096987.570,418.980,2,3,140
604526.010,5096988.280,421.200,1,1,174
604526.130,5096988.250,420.970,1,1,182
604526.160,5096988.370,421.220,1,2,160
604526.210,5096988.440,421.330,1,1,167
604526.280,5096988.490,421.340,1,1,170
604526.370,5096988.500,421.240,1,1,176
604526.470,5096988.510,421.130,1,3,160
604526.540,5096988.550,421.150,1,3,89
604526.770,5096988.450,421.460,1,3,25
604526.800,5096988.550,421.660,1,2,152
604528.090,5096988.330,419.300,1,2,131
604528.120,5096988.430,419.510,1,2,154
604528.260,5096988.530,419.560,1,2,155
604524.130,5096986.850,420.830,1,2,154
604524.200,5096987.150,421.480,1,1,167
604524.320,5096987.060,421.090,1,2,174
604524.490,5096986.680,419.890,2,2,131
604524.340,5096987.230,421.490,1,1,172
604524.440,5096987.210,421.300,1,1,173
604524.520,5096987.230,421.240,1,1,168
604524.590,5096987.290,421.280,1,1,180
604524.680,5096987.280,421.130,1,1,168
604524.770,5096987.310,421.090,1,2,159
604524.900,5096987.210,420.650,1,1,168
604524.980,5096987.230,420.610,1,2,176
604525.010,5096987.380,420.910,1,3,149
604525.310,5096986.740,418.890,2,3,111
604525.080,5096987.420,420.950,1,2,164
604525.150,5096987.470,420.980,1,3,143
604525.220,5096987.520,420.990,1,3,72
604525.310,5096987.520,420.870,1,3,173
604525.580,5096986.980,419.120,2,3,91
604525.380,5096987.580,420.930,1,2,159
604525.430,5096987.660,421.060,1,1,168
604525.510,5096987.710,421.060,1,3,175
604525.610,5096987.670,420.820,1,3,171
604525.840,5096987.240,419.420,2,3,66
604525.670,5096987.740,420.910,1,4,113
604525.920,5096987.280,419.420,2,4,127
604525.730,5096987.810,421.010,1,5,69
604526.020,5096987.300,419.310,2,5,145
604525.770,5096987.920,421.220,1,2,174
604526.100,5096987.320,419.250,2,2,60
604525.850,5096987.960,421.210,1,2,178
604526.190,5096987.340,419.160,2,2,97
604525.920,5096988.000,421.210,1,2,144
604526.270,5096987.370,419.130,2,2,120
604525.970,5096988.070,421.320,1,2,174
604526.350,5096987.400,419.100,2,2,62
604526.020,5096988.160,421.460,1,2,159
604526.450,5096987.430,419.020,2,2,60
604526.110,5096988.170,421.380,1,1,164
604526.190,5096988.200,421.330,1,3,105
604524.160,5096986.900,419.780,1,2,166
604524.260,5096986.870,419.550,1,2,162
604524.340,5096986.910,419.530,1,1,187
604524.250,5096987.330,420.720,1,2,108
604524.510,5096986.720,418.860,2,2,169
604524.380,5096987.240,420.300,1,2,147
604524.560,5096986.830,419.050,2,2,140
604524.530,5096987.120,419.810,1,1,172
604524.610,5096987.370,420.320,1,2,146
604524.800,5096986.940,418.990,2,2,146
604524.850,5096987.230,419.640,1,1,174
604525.010,5096987.110,419.110,1,1,182
604524.940,5096987.460,420.090,1,2,118
604525.010,5096987.520,420.140,1,1,162
604525.080,5096987.560,420.160,1,2,142
604525.290,5096987.330,419.270,1,1,176
604525.070,5096987.980,421.180,1,2,170
604525.380,5096987.340,419.170,2,2,76
604525.130,5096988.040,421.260,1,2,154
604525.250,5096987.810,420.530,2,2,145
604525.330,5096987.830,420.470,1,2,150
604525.290,5096988.080,421.140,1,1,156
604525.340,5096988.160,421.280,1,3,121
604525.430,5096988.180,421.190,1,2,157
604525.810,5096987.660,419.350,1,1,161
604525.600,5096988.230,421.090,1,2,150
604525.890,5096987.700,419.350,2,2,120
604525.660,5096988.270,421.110,1,3,152
604525.750,5096988.290,421.050,1,2,149
604525.820,5096988.350,421.090,1,3,137
604525.150,5096987.600,421.000,1,1,179
604525.210,5096987.660,421.090,1,1,160
604525.310,5096987.650,420.910,1,1,166
604525.370,5096987.700,420.940,1,1,173
604525.430,5096987.780,421.060,1,1,162
604525.490,5096987.850,421.150,1,3,145
604525.610,5096987.800,420.850,1,1,178
604525.670,5096987.870,420.940,1,5,125
604525.940,5096987.380,419.330,2,5,87
604525.690,5096988.000,421.240,1,2,163
604526.020,5096987.400,419.280,2,2,75
604525.770,5096988.030,421.220,1,1,165
604525.850,5096988.070,421.190,1,3,112
604526.210,5096987.440,419.100,2,3,144
604525.920,5096988.120,421.220,1,2,166
604526.280,5096987.480,419.110,2,2,87
604525.990,5096988.170,421.260,1,1,173
604526.050,5096988.220,421.280,1,2,163
604526.110,5096988.280,421.360,1,3,145
604526.230,5096988.250,421.120,1,2,173
604526.300,5096988.300,421.140,1,3,138
604526.340,5096988.400,421.320,1,1,172
604526.430,5096988.390,421.170,1,2,172
604526.510,5096988.430,421.160,1,2,160
604526.680,5096988.490,421.060,1,3,133
604524.150,5096986.670,419.780,1,2,164
604524.210,5096986.750,419.880,1,2,160
604524.150,5096987.120,420.900,1,1,163
604524.220,5096987.150,420.880,1,1,142
604524.240,5096987.350,421.360,1,1,170
604524.300,5096987.400,421.400,1,1,152
604524.390,5096987.410,421.280,1,4,152
604524.510,5096987.140,420.440,2,4,114
604524.450,5096987.460,421.330,1,1,175
604524.530,5096987.500,421.330,1,3,127
604524.680,5096987.150,420.230,2,3,167
604524.870,5096986.730,418.910,3,3,84
604524.740,5096987.250,420.400,1,1,186
604524.790,5096987.350,420.560,1,2,168
604524.870,5096987.380,420.540,1,3,127
604524.990,5096987.100,419.690,2,3,114
604524.940,5096987.410,420.540,1,1,164
604525.050,5096987.370,420.300,1,2,161
604525.040,5096987.600,420.880,1,1,169
604525.150,5096987.560,420.630,1,1,186
604526.030,5096988.550,421.010,1,2,82
604526.120,5096988.560,420.890,1,2,154
604524.090,5096987.070,419.740,1,1,173
604524.180,5096987.120,419.740,1,2,143
604524.180,5096987.310,420.220,1,1,170
604524.270,5096987.340,420.160,1,1,155
604524.330,5096987.410,420.260,1,1,165
604524.400,5096987.450,420.250,1,1,159
604524.480,5096987.490,420.230,1,2,159
604524.640,5096987.140,419.150,2,2,148
604524.560,5096987.520,420.210,1,2,164
604524.710,5096987.190,419.190,2,2,101
604524.790,5096987.230,419.170,1,2,161
604524.860,5096987.270,419.160,1,1,172
604524.960,5096987.260,419.020,1,3,93
604525.010,5096987.370,419.210,1,2,144
604524.790,5096988.030,421.170,1,2,57
604525.090,5096987.410,419.200,2,2,161
604525.170,5096987.440,419.140,1,1,171
604524.930,5096988.110,421.140,1,2,144
604525.070,5096987.830,420.300,2,2,116
604524.980,5096988.210,421.330,1,1,159
604525.060,5096988.250,421.320,1,1,166
604525.140,5096988.250,421.230,1,3,152
604525.290,5096987.970,420.330,2,3,98
604524.120,5096986.760,419.760,1,2,161
604524.170,5096986.830,419.860,1,1,173
604524.260,5096986.850,419.780,1,2,145
604524.210,5096987.200,420.730,1,1,169
604524.260,5096987.280,420.880,1,1,178
604524.280,5096987.460,421.290,1,3,153
604524.400,5096987.190,420.450,2,3,121
604524.330,5096987.530,421.390,1,4,85
604524.540,5096987.050,419.890,2,4,129
604524.420,5096987.550,421.330,1,2,154
604524.610,5096987.110,419.940,2,2,88
604524.710,5096987.110,419.840,1,1,171
604524.800,5096987.110,419.680,1,1,180
604524.970,5096986.970,419.100,1,2,178
604524.950,5096987.200,419.710,1,2,143
604524.980,5096987.330,420.010,1,1,179
604525.080,5096987.530,420.360,1,2,170
604525.240,5096987.200,419.300,2,2,103
604525.130,5096987.610,420.490,1,2,160
604525.320,5096987.240,419.280,2,2,74
604525.210,5096987.630,420.420,1,2,158
604525.390,5096987.280,419.290,2,2,116
604525.170,5096987.900,421.170,1,2,159
604525.470,5096987.320,419.290,2,2,60
604525.250,5096987.960,421.190,1,3,165
604525.570,5096987.330,419.160,2,3,97
604525.330,5096987.960,421.090,1,1,153
604525.380,5096988.060,421.280,1,3,113
604525.470,5096988.050,421.120,1,2,172
604525.520,5096988.140,421.260,1,2,140
604525.840,5096987.550,419.340,2,2,127
604525.640,5096988.110,421.020,1,3,129
604525.950,5096987.540,419.150,2,3,122
604525.700,5096988.170,421.080,1,4,145
604526.030,5096987.580,419.130,2,4,115
604525.810,5096988.140,420.860,1,3,163
604525.840,5096988.260,421.100,1,3,86
604526.200,5096987.630,419.010,2,3,46
604525.910,5096988.300,421.120,1,2,154
604526.040,5096988.270,420.840,1,2,175
604526.370,5096987.690,418.920,2,2,83
604526.090,5096988.340,420.940,1,2,181
604526.120,5096988.460,421.220,1,2,133
604526.190,5096988.500,421.210,1,2,159
604526.290,5096988.500,421.080,1,2,177
604526.070,5096988.000,419.000,1,3,141
604524.200,5096987.010,418.900,2,2,173
604524.260,5096987.080,418.980,1,1,180
604524.350,5096987.110,418.930,1,1,183
604524.380,5096987.260,419.260,1,2,168
604524.330,5096987.590,420.140,1,2,102
604524.510,5096987.200,418.930,2,2,181
604524.560,5096987.270,419.040,1,3,154
604524.630,5096987.340,419.110,1,4,91
604524.700,5096987.410,419.180,1,2,172
604524.790,5096987.400,419.030,1,2,157
604524.840,5096987.500,419.210,1,1,173
604524.630,5096988.150,421.130,1,2,155
604524.920,5096987.530,419.150,2,2,125
604524.700,5096988.210,421.160,1,1,159
604524.790,5096988.220,421.060,1,2,164
604525.080,5096987.640,419.210,2,2,93
604524.840,5096988.310,421.230,1,1,172
604524.920,5096988.340,421.160,1,1,169
604525.020,5096988.300,420.960,1,1,170
604525.910,5096988.360,420.990,1,3,62
604525.960,5096988.440,421.120,1,1,172
604526.020,5096988.500,421.160,1,1,165
604526.090,5096988.550,421.190,1,2,137
604526.200,5096988.540,421.010,1,1,179
604524.220,5096987.000,419.660,1,1,163
604524.280,5096987.090,419.790,1,1,160
604524.300,5096987.280,420.250,1,3,136
604524.360,5096987.340,420.310,1,2,132
604524.500,5096987.010,419.320,2,2,157
604524.440,5096987.380,420.310,1,1,168
604524.510,5096987.420,420.300,1,2,165
604524.710,5096986.970,418.910,2,2,55
604524.580,5096987.460,420.310,1,2,146
604524.840,5096987.130,419.120,1,2,163
604524.880,5096987.210,419.280,1,1,170
604524.970,5096987.250,419.250,1,1,172
604525.020,5096987.330,419.370,1,1,171
604524.980,5096987.600,420.120,1,1,165
604524.890,5096988.020,421.260,1,1,161
604524.970,5096988.030,421.200,1,1,158
604525.040,5096988.090,421.230,1,1,167
604525.100,5096988.150,421.300,1,1,159
604525.180,5096988.160,421.240,1,3,110
604525.510,5096987.510,419.130,2,3,147
604525.260,5096988.200,421.230,1,2,142
604525.600,5096987.560,419.140,2,2,129
604525.320,5096988.250,421.260,1,2,4
604525.680,5096987.590,419.080,2,2,169
604525.730,5096987.680,419.220,1,1,177
604525.510,5096988.260,421.030,1,4,99
604525.790,5096987.750,419.340,2,4,148
604525.560,5096988.330,421.110,1,2,151
604525.870,5096987.770,419.270,2,2,107
604525.660,5096988.350,421.020,1,3,148
604526.020,5096987.700,418.880,2,3,121
604525.730,5096988.390,421.040,1,3,160
604526.050,5096987.820,419.130,2,3,89
604525.810,5096988.420,420.990,1,2,172
604525.890,5096988.440,420.940,1,3,91
604525.940,5096988.530,421.080,1,4,102
604524.100,5096987.200,418.920,1,1,169
604524.320,5096987.340,418.970,1,2,178
604524.370,5096987.460,419.200,1,1,169
604524.520,5096987.540,419.190,1,2,143
604524.790,5096987.590,418.940,1,2,171
604524.540,5096988.320,421.110,1,2,50
604524.840,5096987.680,419.080,2,2,172
604524.620,5096988.360,421.080,1,3,125
604524.950,5096987.670,418.920,2,3,130
604524.700,5096988.360,420.980,1,3,84
604524.790,5096988.390,420.910,1,3,162
604525.060,5096987.820,419.110,2,3,92
604524.860,5096988.440,420.940,1,3,93
604524.930,5096988.480,420.960,1,1,174
604524.990,5096988.530,421.010,1,1,167
604525.360,5096988.010,419.160,2,3,70
604525.440,5096988.050,419.160,1,3,115
604525.640,5096988.050,418.860,1,2,171
604525.690,5096988.140,419.010,1,2,180
604525.740,5096988.220,419.140,1,3,155
604525.870,5096988.180,418.860,1,2,188
604526.020,5096988.270,418.860,1,1,183
604525.480,5096987.590,419.090,3,3,96
604525.530,5096987.700,419.290,1,1,178
604525.600,5096987.730,419.270,1,1,181
604525.660,5096987.810,419.380,1,1,171
604525.740,5096987.860,419.410,1,2,164
604525.530,5096988.420,421.120,1,2,109
604525.850,5096987.840,419.190,2,2,157
604525.960,5096987.830,419.020,1,1,169
604525.670,5096988.500,421.100,1,2,152
604526.030,5096987.870,419.020,2,2,102
604526.100,5096987.920,419.020,1,2,143
604525.840,5096988.560,421.030,1,2,160
604524.080,5096986.880,418.990,1,2,156
604524.160,5096986.920,418.970,1,1,174
604524.080,5096987.330,420.140,1,1,168
604524.150,5096987.390,420.170,1,2,145
604524.290,5096987.050,419.130,2,2,144
604524.360,5096987.100,419.160,1,1,180
604524.300,5096987.460,420.130,1,1,163
604524.380,5096987.520,420.170,1,1,178
604524.450,5096987.560,420.170,1,3,155
604524.600,5096987.220,419.130,2,3,106
604524.530,5096987.590,420.130,1,1,163
604524.740,5096987.310,419.160,1,2,171
604524.810,5096987.370,419.190,1,1,173
604524.900,5096987.410,419.190,1,1,177
604524.670,5096988.070,421.150,1,2,143
604524.980,5096987.430,419.120,2,2,151
604524.750,5096988.110,421.140,1,2,78
604525.090,5096987.400,418.880,2,2,155
604524.820,5096988.140,421.110,1,3,153
604525.120,5096987.530,419.160,2,3,87
604524.880,5096988.230,421.260,1,1,164
604524.960,5096988.260,421.190,1,1,169
604525.060,5096988.230,421.020,1,2,134
604525.360,5096987.640,419.120,2,2,155
604525.440,5096987.690,419.100,1,2,169
604525.520,5096987.720,419.090,1,2,177
604525.560,5096987.810,419.250,1,1,180
604525.660,5096987.830,419.150,1,1,185
604525.720,5096987.900,419.230,1,1,185
604525.810,5096987.930,419.190,1,2,169
604525.890,5096987.950,419.110,1,1,173
604525.980,5096987.980,419.060,1,1,172
604524.540,5096988.560,420.860,1,2,159
604525.240,5096988.300,419.240,1,1,135
604525.320,5096988.350,419.250,1,3,131
